ply
format ascii 1.0
comment Created by Open3D
element vertex 1074
property double x
property double y
property double z
property double nx
property double ny
property double nz
end_header
8.28134 3.53447 32.4246 0 0 1
-3.16244 26.7505 -87.0288 0 0 1
72.4298 17.2027 -2.88357 0 0 1
6.3916 6.15885 0.47975 0 0 1
-7.52112 -10.1004 18.8033 0 0 1
72.2619 15.7192 -2.72091 0 0 1
-18.547 -29.9856 54.4697 0 0 1
44.327 18.4922 -0.746196 0 0 1
67.0203 14.9057 -1.7454 0 0 1
61.2792 14.3808 -1.34809 0 0 1
52.4455 14.2575 -1.34774 0 0 1
-15.1005 -19.9474 44.0248 0 0 1
-22.5027 -25.9801 58.9741 0 0 1
31.5861 13.0777 -10.461 0 0 1
46.14 16.7789 -1.3786 0 0 1
69.9563 17.3983 -1.89444 0 0 1
-33.647 -46.5484 77.12 0 0 1
61.0451 12.1735 -1.40336 0 0 1
16.5754 19.7122 -27.8294 0 0 1
64.1005 17.1546 0.189547 0 0 1
69.8515 15.0208 -2.16174 0 0 1
0.321044 26.8648 -92.4129 0 0 1
61.0645 15.8329 -0.728383 0 0 1
3.13424 32.0763 -107.317 0 0 1
61.3397 17.1266 0.814395 0 0 1
-13.6876 -11.797 35.2033 0 0 1
2.85015 7.22117 6.4003 0 0 1
66.8674 17.4965 -0.28809 0 0 1
67.4893 16.7973 -1.3572 0 0 1
68.7971 13.3674 -1.54441 0 0 1
1.45308 16.0401 -45.694 0 0 1
3.15397 32.8895 -123.8 0 0 1
52.5588 15.6897 -0.511049 0 0 1
0.647158 10.4022 -30.1798 0 0 1
16.4866 15.7299 -30.7623 0 0 1
-58.3088 -57.0218 102.025 0 0 1
63.5127 16.1615 -0.905658 0 0 1
46.716 9.72992 -2.30436 0 0 1
64.1796 14.7678 -1.42409 0 0 1
54.9442 10.0728 -1.1998 0 0 1
58.0309 10.3441 -0.851094 0 0 1
15.8344 19.1143 -29.7285 0 0 1
49.4625 14.5697 -1.6013 0 0 1
-13.6036 -28.2892 47.5992 0 0 1
43.8502 9.80695 -2.69995 0 0 1
58.3783 17.0807 0.945327 0 0 1
-2.03197 1.67551 -7.25722 0 0 1
52.3323 17.2737 0.973067 0 0 1
-30.363 -41.9404 80.0084 0 0 1
63.9904 11.7971 -0.861056 0 0 1
1.51443 16.5202 -43.4872 0 0 1
58.2734 15.6156 -0.571104 0 0 1
35.3919 17.8441 -8.84973 0 0 1
0.106392 12.0317 -22.7952 0 0 1
3.2587 19.5907 -46.4769 0 0 1
64.1002 12.8001 -1.32502 0 0 1
-5.57441 -10.1857 18.6628 0 0 1
49.5943 12.0377 -2.07388 0 0 1
-2.70503 -4.36773 7.01706 0 0 1
23.9856 19.8654 -17.3309 0 0 1
55.4357 12.0103 -1.29907 0 0 1
-20.075 -34.1832 59.2778 0 0 1
13.4602 3.64532 76.0423 0 0 1
8.21031 3.50989 29.5705 0 0 1
-47.6125 -53.9397 92.5764 0 0 1
55.4309 17.056 0.975936 0 0 1
55.3482 17.8245 1.9642 0 0 1
10.9605 15.7592 -40.0885 0 0 1
35.528 19.9658 -8.84577 0 0 1
13.7197 3.54748 77.673 0 0 1
58.4037 14.1974 -1.25615 0 0 1
-55.273 -54.888 102.203 0 0 1
43.6102 17.4519 -1.97218 0 0 1
4.81859 16.064 -42.893 0 0 1
55.3424 15.5292 -0.51987 0 0 1
-26.4939 -35.0409 72.9147 0 0 1
58.3921 12.1366 -1.33681 0 0 1
55.3914 14.1134 -1.21485 0 0 1
3.02442 8.58975 -22.7613 0 0 1
10.7625 18.5217 -42.774 0 0 1
28.0151 16.8194 -15.9235 0 0 1
37.3585 15.0358 -7.53263 0 0 1
3.63957 30.4038 -110.124 0 0 1
49.4933 17.3976 0.345147 0 0 1
-29.9543 -43.3094 72.4523 0 0 1
-12.8543 -32.6636 52.0332 0 0 1
4.795 10.9291 -14.3853 0 0 1
37.0653 17.7117 -7.39 0 0 1
-0.952317 28.6664 -87.8226 0 0 1
-43.8951 -54.5135 87.7232 0 0 1
5.98256 5.27035 29.5022 0 0 1
46.817 17.8034 -0.290344 0 0 1
-15.6501 -19.6344 46.6892 0 0 1
5.12147 32.3033 -113.066 0 0 1
4.75631 3.95463 -11.2759 0 0 1
40.7654 14.9615 -5.13193 0 0 1
49.9569 15.9548 -0.735747 0 0 1
5.12486 20.8883 -57.8529 0 0 1
-30.723 -41.5766 76.0356 0 0 1
5.97767 5.34132 26.5987 0 0 1
-29.4245 -40.1276 76.1094 0 0 1
-9.80416 -11.5128 25.894 0 0 1
38.4316 17.9827 -5.97333 0 0 1
3.24858 15.8399 -34.4631 0 0 1
40.2106 17.5141 -4.61327 0 0 1
52.5007 12.0611 -1.6136 0 0 1
-34.8735 -46.0111 84.8199 0 0 1
-0.0544573 11.7058 -20.2331 0 0 1
-0.450349 13.7469 -23.3758 0 0 1
46.6622 14.9807 -2.15398 0 0 1
-50.3708 -54.5848 100.84 0 0 1
7.5005 3.34449 12.181 0 0 1
41.4062 18.1254 -3.02506 0 0 1
-3.20769 -15.8459 27.8354 0 0 1
2.98355 11.1651 -14.1795 0 0 1
35.1211 11.3143 -6.23413 0 0 1
49.5495 9.78878 -2.1333 0 0 1
1.49511 4.7292 22.8057 0 0 1
46.6629 12.0698 -2.62636 0 0 1
5.18086 22.8605 -63.6763 0 0 1
44.0023 15.0739 -3.22916 0 0 1
38.322 19.7007 -5.66082 0 0 1
43.8689 11.9645 -3.33704 0 0 1
2.89153 8.83814 -2.55245 0 0 1
42.6375 14.6115 -4.12101 0 0 1
-17.3713 21.4316 -80.9591 0 0 1
-19.8066 -28.797 55.6127 0 0 1
29.2963 12.5274 -11.2881 0 0 1
-12.5961 -31.4636 49.5505 0 0 1
1.02633 13.0165 -36.8118 0 0 1
42.6 13.1731 -4.10214 0 0 1
-52.0478 -55.2681 96.7566 0 0 1
4.61956 30.9047 -111.876 0 0 1
36.8925 19.9243 -7.44733 0 0 1
16.7608 17.4057 -31.2937 0 0 1
7.78604 3.26519 17.8923 0 0 1
-0.740996 -10.0266 18.9639 0 0 1
41.7048 11.0726 -3.75386 0 0 1
2.97462 29.59 -95.6202 0 0 1
3.00714 7.10057 -19.6619 0 0 1
40.6193 12.1571 -4.59198 0 0 1
27.5641 11.7716 -12.3089 0 0 1
38.7358 14.843 -6.42939 0 0 1
0.357108 12.0298 -28.5923 0 0 1
8.48944 1.5817 26.5734 0 0 1
40.8728 9.87676 -3.37158 0 0 1
3.08474 26.7483 -86.798 0 0 1
-16.4998 20.8739 -83.0313 0 0 1
-46.8251 -53.2276 98.1916 0 0 1
34.0301 20.0992 -10.0459 0 0 1
5.95152 18.366 -51.9018 0 0 1
37.9459 11.9062 -5.66043 0 0 1
-28.0168 -38.1928 76.0424 0 0 1
32.1212 20.0243 -10.9207 0 0 1
-8.7144 -20.1917 35.2744 0 0 1
22.5471 17.502 -22.3015 0 0 1
37.9185 10.1991 -4.46966 0 0 1
0.354814 12.1962 -25.8484 0 0 1
15.8144 13.892 -29.7563 0 0 1
0.685644 5.64453 9.11211 0 0 1
5.96714 6.15988 12.1018 0 0 1
4.83457 11.6015 -19.9928 0 0 1
-38.8917 -53.5008 82.2597 0 0 1
-12.3975 -9.03882 28.9635 0 0 1
35.3483 14.8295 -8.90622 0 0 1
-10.7278 -14.1334 29.6903 0 0 1
32.2148 17.9506 -11.3398 0 0 1
33.9296 17.6401 -10.0701 0 0 1
29.7292 20.006 -12.0284 0 0 1
3.56561 27.9771 -97.3191 0 0 1
34.1665 15.3845 -10.2148 0 0 1
-9.84676 -23.9901 39.9473 0 0 1
10.6585 19.6195 -39.8715 0 0 1
22.6257 19.8937 -19.7708 0 0 1
2.5214 -1.51375 0.950599 0 0 1
30.2981 18.8263 -12.355 0 0 1
-21.1226 -28.6683 58.4149 0 0 1
34.7438 12.6439 -7.87196 0 0 1
28.3333 19.7161 -13.0812 0 0 1
2.97455 5.93001 14.9604 0 0 1
29.0455 17.9163 -14.0364 0 0 1
-5.61207 0.12953 6.04341 0 0 1
4.88241 13.2277 -33.7556 0 0 1
26.4979 19.7778 -14.4129 0 0 1
-63.7065 -56.9676 106.069 0 0 1
27.1699 18.8399 -15.0697 0 0 1
32.2414 12.3365 -8.48472 0 0 1
29.3321 14.8088 -14.2439 0 0 1
26.285 17.9026 -16.9923 0 0 1
3.94865 5.01998 -5.81759 0 0 1
25.2703 19.5505 -16.1291 0 0 1
3.72582 22.6181 -60.8061 0 0 1
28.261 15.752 -16.1198 0 0 1
5.01204 27.6939 -92.4836 0 0 1
-9.55543 -8.45135 23.4849 0 0 1
-11.8333 -20.5083 37.8797 0 0 1
26.6155 14.8351 -17.2367 0 0 1
6.45479 1.69117 9.48443 0 0 1
24.5222 18.9867 -18.0057 0 0 1
7.42623 3.81364 9.76588 0 0 1
3.18749 34.8079 -121.948 0 0 1
-17.5181 -31.8276 55.608 0 0 1
23.6404 18.1674 -20.1519 0 0 1
6.98757 1.57861 12.0818 0 0 1
3.11671 14.394 -28.6636 0 0 1
25.3803 15.4392 -19.1408 0 0 1
21.5305 20.0344 -20.9614 0 0 1
3.61088 25.8526 -75.4149 0 0 1
3.2997 30.0623 -107.241 0 0 1
20.6553 20.0595 -22.8835 0 0 1
11.6294 18.0507 -40.383 0 0 1
3.07836 27.2288 -95.3202 0 0 1
4.85852 21.8998 -66.1339 0 0 1
23.9681 14.7072 -20.3712 0 0 1
2.82363 32.4987 -115.936 0 0 1
21.2735 18.2761 -23.3925 0 0 1
22.674 15.1627 -22.2591 0 0 1
-15.2639 -34.8987 58.1278 0 0 1
19.3749 19.8226 -24.6949 0 0 1
-34.5833 -46.1266 79.0433 0 0 1
-5.58093 -19.4849 32.8679 0 0 1
-35.5989 -51.2111 78.7177 0 0 1
17.8599 19.9811 -26.1037 0 0 1
20.0759 17.6689 -25.6398 0 0 1
2.81639 32.6424 -118.881 0 0 1
18.5074 18.6941 -26.6585 0 0 1
-45.2241 -55.2795 89.0036 0 0 1
8.00371 3.40024 23.7496 0 0 1
-1.10758 -12.2042 22.9129 0 0 1
20.0215 15.1002 -25.5649 0 0 1
3.05038 5.36261 23.6104 0 0 1
-63.5133 -55.5466 106.111 0 0 1
5.91032 20.592 -51.95 0 0 1
33.173 11.3755 -6.65573 0 0 1
7.94776 3.33967 20.7863 0 0 1
-0.794836 -10.8624 20.6002 0 0 1
7.7714 1.49465 17.867 0 0 1
2.99308 5.58634 20.8122 0 0 1
4.77935 27.9127 -94.5745 0 0 1
-3.03075 -14.7084 26.3856 0 0 1
15.1631 14.8652 -31.7643 0 0 1
8.05528 1.52738 20.7744 0 0 1
17.6863 17.9669 -28.7894 0 0 1
15.3044 19.799 -29.109 0 0 1
2.99646 5.71034 17.8638 0 0 1
5.01577 4.33341 -2.2344 0 0 1
11.9903 4.82853 66.6711 0 0 1
7.62008 3.21893 15.0074 0 0 1
-4.71269 28.3049 -83.7249 0 0 1
-39.6023 -53.6445 82.9958 0 0 1
15.3096 18.426 -31.9387 0 0 1
14.0237 19.6126 -31.4149 0 0 1
17.0344 13.1467 -27.9813 0 0 1
4.2519 3.36709 -0.172927 0 0 1
3.05714 14.4661 -40.3406 0 0 1
7.23608 1.38968 14.3389 0 0 1
1.2917 4.92343 17.7858 0 0 1
12.8867 19.8596 -32.5427 0 0 1
6.09113 6.48935 6.24086 0 0 1
-9.71756 -21.25 37.1587 0 0 1
6.57105 3.1574 6.26261 0 0 1
-24.9976 -29.2783 64.6135 0 0 1
7.1057 5.87764 46.3678 0 0 1
8.11397 3.51016 26.6288 0 0 1
7.02068 3.05519 9.05061 0 0 1
-11.7929 -23.2053 40.9186 0 0 1
5.18837 17.1116 -43.408 0 0 1
7.25717 2.74086 11.5135 0 0 1
-28.4938 -45.9421 70.9829 0 0 1
2.97937 6.32631 12.0631 0 0 1
3.88823 5.72758 -8.24945 0 0 1
-14.4192 -31.7535 52.8006 0 0 1
3.78268 7.75539 5.46012 0 0 1
0.627991 10.1066 -28.4269 0 0 1
17.4884 14.9169 -28.6464 0 0 1
2.85544 13.2123 -25.3912 0 0 1
-0.902296 26.8835 -90.4744 0 0 1
6.40985 6.31937 3.27199 0 0 1
-58.3854 -54.6934 104.379 0 0 1
1.34098 28.3389 -94.677 0 0 1
-20.7776 -31.877 58.227 0 0 1
6.0182 3.41038 3.34841 0 0 1
-9.57406 24.5926 -78.7583 0 0 1
1.61937 16.6575 -32.5703 0 0 1
0.857943 5.27792 11.9733 0 0 1
5.18863 32.6806 -115.921 0 0 1
-40.5081 -49.6068 87.8651 0 0 1
14.5759 17.8692 -34.4154 0 0 1
13.4042 19.4314 -33.5065 0 0 1
10.0657 20.5314 -38.3296 0 0 1
12.2009 19.821 -34.6559 0 0 1
0.548588 6.03368 6.19431 0 0 1
-24.7705 -39.0633 65.7752 0 0 1
3.83485 5.16751 32.3012 0 0 1
-27.0767 -43.5559 69.1933 0 0 1
1.30643 7.79834 -0.334959 0 0 1
-11.2775 -8.37002 26.6136 0 0 1
12.8613 19.1231 -35.4188 0 0 1
7.35138 4.69795 21.2812 0 0 1
6.04722 6.04362 -2.5177 0 0 1
-5.70804 -11.2986 20.7879 0 0 1
0.429276 6.44427 3.29295 0 0 1
13.6869 17.7113 -36.822 0 0 1
5.58511 6.1917 -5.34781 0 0 1
-22.675 -31.7018 61.6112 0 0 1
22.0432 16.5092 -24.4209 0 0 1
30.1597 12.2059 -9.22025 0 0 1
12.6011 18.1319 -37.7036 0 0 1
-39.5233 -52.2858 83.0081 0 0 1
-8.44305 23.1923 -83.716 0 0 1
11.189 19.8953 -37.4037 0 0 1
0.239149 -3.63716 5.73296 0 0 1
1.48859 16.5841 -37.421 0 0 1
9.55804 20.347 -40.5831 0 0 1
5.22889 9.09323 -14.0767 0 0 1
-13.1805 -9.12512 30.3365 0 0 1
5.35242 9.12635 -11.2988 0 0 1
4.01072 4.06959 -2.57055 0 0 1
4.92463 7.14509 -10.9645 0 0 1
4.87974 5.43543 -14.4012 0 0 1
3.46806 24.7216 -80.8101 0 0 1
-2.79212 -8.20476 14.9427 0 0 1
8.76391 20.3149 -43.2409 0 0 1
5.18056 15.6671 -40.2409 0 0 1
65.3605 16.4482 -1.06478 0 0 1
-55.5458 -56.9472 99.3031 0 0 1
2.38599 -2.42782 3.23576 0 0 1
2.09624 -3.38867 6.15061 0 0 1
-8.71608 25.6616 -78.8718 0 0 1
0.486601 -6.61941 13.9649 0 0 1
8.48677 19.9427 -46.066 0 0 1
-25.7178 -43.2427 67.9842 0 0 1
1.02875 8.04062 -2.69497 0 0 1
5.41403 9.04147 -8.34227 0 0 1
6.80769 21.0924 -46.429 0 0 1
0.078102 -2.69491 3.31131 0 0 1
4.78466 4.53544 -13.2314 0 0 1
-8.12596 -13.0635 24.5995 0 0 1
3.03731 3.83626 -11.2275 0 0 1
3.03773 2.73074 -8.31466 0 0 1
-0.0571916 7.03393 -8.20078 0 0 1
-2.29687 9.13017 -14.0757 0 0 1
2.86688 1.29602 -5.09882 0 0 1
2.80075 0.0952233 -2.51621 0 0 1
-0.116818 -4.26078 7.03496 0 0 1
-19.1672 20.8886 -80.0197 0 0 1
-7.4099 22.3472 -85.6555 0 0 1
8.79016 17.9315 -46.1808 0 0 1
-9.81209 -6.09041 22.712 0 0 1
5.24233 12.6118 -31.5061 0 0 1
5.12315 23.6919 -69.5675 0 0 1
0.0726391 -5.92689 11.9427 0 0 1
5.09895 11.8813 -28.5725 0 0 1
5.10142 9.10183 -22.868 0 0 1
-14.6858 -15.2244 43.3649 0 0 1
0.0849603 -0.868119 -0.614019 0 0 1
-5.83328 -9.34776 17.2228 0 0 1
3.07225 5.53114 -14.4569 0 0 1
-22.2632 -36.8036 62.5208 0 0 1
2.78114 -0.819019 -0.46605 0 0 1
0.0322467 -1.58928 0.818325 0 0 1
7.48057 4.86336 32.3887 0 0 1
5.18526 21.2337 -60.7053 0 0 1
-4.36466 -1.60392 1.15742 0 0 1
5.26398 14.1579 -34.7497 0 0 1
5.14328 10.0712 -25.3428 0 0 1
3.30327 24.2647 -78.1276 0 0 1
3.00891 6.04882 -17.0755 0 0 1
0.122129 3.66585 -11.241 0 0 1
4.10006 5.16149 35.1734 0 0 1
0.0478818 2.48441 -8.31738 0 0 1
0.383865 1.8907 -6.64232 0 0 1
-24.7752 -30.4399 65.6511 0 0 1
0.0594222 1.18314 -5.28732 0 0 1
0.0372221 -0.0187753 -2.54958 0 0 1
-31.305 -48.4398 73.9279 0 0 1
5.11273 16.8662 -40.6733 0 0 1
5.19729 14.9119 -37.3515 0 0 1
-9.3855 21.7948 -85.0168 0 0 1
1.78692 -4.36649 9.06982 0 0 1
-14.7609 -17.2164 44.1252 0 0 1
10.0324 3.45753 52.6501 0 0 1
3.27271 10.9665 -29.111 0 0 1
-13.6736 -25.1947 44.8268 0 0 1
-13.2432 -13.7224 36.2299 0 0 1
-11.7045 21.2644 -84.3806 0 0 1
3.01288 9.67446 -25.7941 0 0 1
9.73274 3.49386 49.8226 0 0 1
0.19925 5.07351 -14.7427 0 0 1
3.34444 31.7177 -104.49 0 0 1
-3.37065 -0.131124 -0.183757 0 0 1
2.97501 4.54713 -13.2349 0 0 1
-8.49362 20.7287 -86.4412 0 0 1
-2.75686 -1.55395 0.869045 0 0 1
-14.2445 -17.0624 41.1384 0 0 1
1.72727 -4.0588 7.50905 0 0 1
-3.76928 28.4116 -84.8626 0 0 1
-2.80094 -2.61272 3.27845 0 0 1
-21.8461 -33.3061 59.8839 0 0 1
-2.88341 -3.63219 5.53338 0 0 1
-17.524 -28.9942 52.5719 0 0 1
-32.829 -45.2106 84.8431 0 0 1
3.45951 34.4188 -119.064 0 0 1
3.45902 23.0553 -63.5859 0 0 1
7.97864 19.8415 -48.9625 0 0 1
2.95093 11.6573 -31.6214 0 0 1
-11.1516 22.4706 -83.0357 0 0 1
-6.47632 26.6146 -81.6986 0 0 1
4.896 14.242 -31.8613 0 0 1
3.5942 8.64624 -20.4548 0 0 1
-1.41719 28.0812 -88.5605 0 0 1
-13.3953 -9.57488 31.5295 0 0 1
-11.5581 -6.6361 25.6068 0 0 1
0.14707 6.98328 -19.8466 0 0 1
-0.028588 6.04881 -17.0149 0 0 1
-2.29014 1.09842 -5.30206 0 0 1
5.32283 26.0641 -78.2838 0 0 1
-27.4638 -40.6068 68.9061 0 0 1
-8.44237 -16.3212 29.9851 0 0 1
7.50039 19.9243 -50.8838 0 0 1
5.1513 24.3335 -75.1022 0 0 1
3.45567 14.0564 -37.6821 0 0 1
2.93344 12.6102 -34.484 0 0 1
-32.5889 -46.1038 75.7222 0 0 1
-14.4448 -14.6331 40.9645 0 0 1
-2.72824 -9.39511 17.2383 0 0 1
2.52013 10.3247 -27.9332 0 0 1
-65.0116 -55.7309 106.818 0 0 1
0.0524365 8.68992 -22.8905 0 0 1
3.03889 6.80551 9.20635 0 0 1
-2.72164 0.165624 -2.47263 0 0 1
-43.7675 -51.1886 93.5853 0 0 1
21.3828 14.6187 -23.5747 0 0 1
-49.7775 -56.6936 93.5669 0 0 1
4.99075 17.7002 -46.1574 0 0 1
0.383329 9.37803 -25.7091 0 0 1
18.6361 14.2654 -26.8024 0 0 1
-46.5536 -54.813 90.7546 0 0 1
-51.0583 -56.8925 94.8538 0 0 1
2.38798 13.1721 -36.8819 0 0 1
3.10315 35.1349 -124 0 0 1
2.72942 17.9023 -46.2475 0 0 1
-18.8047 -35.9248 60.1587 0 0 1
-18.5941 -32.9144 57.3359 0 0 1
5.28364 26.8892 -83.954 0 0 1
7.84055 18.3111 -48.4676 0 0 1
3.17107 15.3596 -43.279 0 0 1
-33.2394 -44.8103 83.1315 0 0 1
0.801741 12.5843 -34.3656 0 0 1
7.46701 4.87131 23.5241 0 0 1
3.21115 26.5465 -81.1895 0 0 1
-23.3394 -37.6866 63.9691 0 0 1
-7.33087 -2.66595 15.9254 0 0 1
-12.4208 -29.2141 46.4946 0 0 1
0.678478 11.8635 -31.5783 0 0 1
0.145383 14.2686 -26.072 0 0 1
2.64387 17.5767 -49.0336 0 0 1
-1.46131 6.18681 -16.1994 0 0 1
-40.7336 -51.9796 84.8458 0 0 1
2.76066 15.9708 -45.9449 0 0 1
5.38004 20.4749 -54.8602 0 0 1
1.23667 15.1912 -40.2478 0 0 1
5.33744 18.5983 -54.7866 0 0 1
2.77176 18.065 -51.8834 0 0 1
0.876987 14.995 -31.544 0 0 1
3.06096 18.688 -54.7676 0 0 1
3.12278 20.7137 -57.8609 0 0 1
-11.4567 23.039 -81.0801 0 0 1
-15.8203 -22.91 45.7385 0 0 1
1.04552 15.1244 -34.5574 0 0 1
1.13586 4.6967 19.5427 0 0 1
5.19351 23.2546 -66.5498 0 0 1
2.99838 19.0863 -57.1457 0 0 1
5.06534 21.5548 -63.4945 0 0 1
-49.6093 -54.1259 99.2741 0 0 1
-11.7709 -14.1706 32.438 0 0 1
3.03255 20.6191 -60.7244 0 0 1
-0.115614 1.77434 -6.97414 0 0 1
3.11831 20.9985 -63.5985 0 0 1
3.28528 21.491 -66.4205 0 0 1
-24.796 -28.1328 62.6914 0 0 1
3.17577 20.8256 -54.9398 0 0 1
5.76055 18.1459 -49.2099 0 0 1
-9.72995 -27.7179 41.9437 0 0 1
-13.472 -17.0255 38.2981 0 0 1
-0.14446 4.43808 -13.4186 0 0 1
-16.2903 -22.9203 47.1285 0 0 1
-1.91407 3.70809 -11.0618 0 0 1
-19.5042 21.3661 -78.4829 0 0 1
0.14177 7.33102 -10.7263 0 0 1
59.5088 10.4765 -1.07995 0 0 1
-2.26837 2.94491 -8.31825 0 0 1
-53.9336 -56.0493 97.8203 0 0 1
-11.4863 23.7009 -78.1288 0 0 1
4.96818 5.94263 -17.1129 0 0 1
9.81202 17.6398 -43.7892 0 0 1
-26.2864 -37.4709 67.4384 0 0 1
3.43172 2.72837 -5.86295 0 0 1
0.123422 -4.95587 9.11758 0 0 1
4.60895 3.04409 -8.52485 0 0 1
2.09354 -3.87674 8.04178 0 0 1
1.62551 -4.74355 10.7142 0 0 1
32.2742 14.7943 -11.4889 0 0 1
-3.86946 2.89974 -2.53933 0 0 1
4.94438 9.5808 -19.9915 0 0 1
5.10612 9.58057 -17.0483 0 0 1
2.98856 32.412 -110.284 0 0 1
5.2638 6.64509 -8.17199 0 0 1
75.2714 16.5745 -3.97028 0 0 1
4.61388 3.6696 -5.14358 0 0 1
5.45695 33.2651 -121.797 0 0 1
13.981 15.2975 -34.257 0 0 1
5.42108 3.79495 0.540527 0 0 1
1.98295 7.41125 3.67683 0 0 1
1.09051 5.05074 14.7621 0 0 1
2.91437 10.0037 -8.34368 0 0 1
21.1544 12.5383 -23.1051 0 0 1
7.51785 1.57799 15.2517 0 0 1
0.234932 6.70124 0.446161 0 0 1
-28.4902 -40.2245 70.4383 0 0 1
-44.0228 -51.5335 95.7634 0 0 1
-4.84688 3.38666 0.467655 0 0 1
-2.93755 -10.1814 18.6214 0 0 1
-26.9448 -45.514 69.5589 0 0 1
-20.2204 -23.3803 55.523 0 0 1
-21.9996 -28.1894 59.7577 0 0 1
-30.6159 -41.6985 78.2205 0 0 1
-29.3696 -40.5851 78.8793 0 0 1
5.23711 8.20371 0.292173 0 0 1
5.37081 32.9246 -118.939 0 0 1
-60.9465 -55.2996 104.89 0 0 1
-19.9871 -25.7114 55.7815 0 0 1
-57.9456 -55.4735 102.512 0 0 1
5.422 8.48943 -2.55196 0 0 1
4.01227 22.5678 -54.0025 0 0 1
-19.6467 -31.1195 56.3206 0 0 1
5.93738 5.23734 35.3698 0 0 1
-12.6531 -14.2696 34.9285 0 0 1
3.01259 32.7135 -113.13 0 0 1
9.40883 3.37944 46.9424 0 0 1
4.55171 14.0388 -28.7896 0 0 1
1.37536 4.91215 20.5651 0 0 1
-20.8142 -40.3061 63.9916 0 0 1
3.84817 28.4053 -86.987 0 0 1
-6.20456 0.61735 9.25978 0 0 1
3.79183 34.0694 -116.209 0 0 1
-25.4972 -45.0404 68.3778 0 0 1
5.99256 5.93047 15.0335 0 0 1
-27.8624 -38.4315 70.5827 0 0 1
5.30801 34.451 -118.923 0 0 1
12.158 3.93522 67.3526 0 0 1
-11.3744 -28.4325 44.1938 0 0 1
3.29096 23.5222 -66.6304 0 0 1
-22.6434 -34.5538 61.6755 0 0 1
12.91 3.7496 73.0417 0 0 1
3.53594 28.7556 -89.8641 0 0 1
-36.4939 -49.8341 80.1848 0 0 1
5.03282 34.6918 -123.972 0 0 1
-31.8683 -43.6045 81.8524 0 0 1
5.97376 5.26653 32.4568 0 0 1
5.01932 34.8061 -121.817 0 0 1
-26.9755 -37.0449 70.225 0 0 1
26.8744 12.251 -14.4086 0 0 1
-0.044794 6.74164 -2.42058 0 0 1
-25.9956 -34.6688 70.2227 0 0 1
-15.0067 21.8405 -82.0053 0 0 1
-7.3893 -5.32719 15.888 0 0 1
6.041 5.58018 20.8369 0 0 1
4.75402 11.9097 -22.8812 0 0 1
5.14775 31.5099 -104.516 0 0 1
-0.140946 6.85638 -5.32803 0 0 1
-27.1896 -36.6978 73.1537 0 0 1
1.52676 16.7342 -48.2034 0 0 1
-52.3752 -54.5109 99.2772 0 0 1
12.0087 4.88751 64.2916 0 0 1
2.95062 26.7987 -92.996 0 0 1
-46.4515 -52.5889 93.4893 0 0 1
-8.07147 -18.9799 33.3976 0 0 1
3.87561 8.44701 -17.2601 0 0 1
15.8973 13.3737 -29.2526 0 0 1
-0.332099 23.6478 -90.2666 0 0 1
-8.72291 -11.5509 23.5414 0 0 1
7.32129 4.68327 23.6449 0 0 1
5.32025 34.2244 -116.906 0 0 1
-37.6 -49.1617 82.059 0 0 1
52.3676 9.87831 -1.62828 0 0 1
-6.43497 24.2757 -84.3684 0 0 1
-38.413 -48.5529 84.6313 0 0 1
-26.0927 -40.3646 67.4817 0 0 1
3.63087 5.14038 29.503 0 0 1
5.94218 5.2199 38.2505 0 0 1
21.9809 19.4167 -21.5488 0 0 1
5.96366 5.47015 23.6978 0 0 1
-14.2158 20.9809 -83.7146 0 0 1
-21.8564 -24.2353 57.5461 0 0 1
-23.2036 -28.6693 61.4941 0 0 1
-9.08062 -5.35854 20.8465 0 0 1
5.21987 32.0463 -110.173 0 0 1
-20.2851 -37.4057 61.7924 0 0 1
-8.74133 -23.0088 38.2995 0 0 1
6.27176 5.39811 41.0533 0 0 1
-6.73077 -23.3467 37.4668 0 0 1
5.32523 33.3776 -123.859 0 0 1
-7.94179 -5.4108 17.905 0 0 1
4.84249 12.14 -25.9286 0 0 1
3.89349 25.3962 -72.6713 0 0 1
7.17117 21.1326 -44.4649 0 0 1
-42.2566 -53.2039 86.1088 0 0 1
-61.2687 -56.9729 104.581 0 0 1
5.24027 31.734 -107.238 0 0 1
9.58616 5.48795 52.7917 0 0 1
-11.499 -11.1503 29.5792 0 0 1
2.94779 9.43203 -5.40864 0 0 1
8.24926 1.55568 23.6986 0 0 1
-5.78001 -8.09966 15.0361 0 0 1
3.0097 29.8718 -104.443 0 0 1
-6.64694 -0.697586 14.3132 0 0 1
-24.5048 -32.1974 66.2545 0 0 1
-4.69046 5.73295 -2.60242 0 0 1
57.8878 17.7703 1.90127 0 0 1
2.71967 29.7221 -101.332 0 0 1
4.94215 31.2383 -101.639 0 0 1
3.62417 31.3101 -101.549 0 0 1
-2.76936 -5.38456 9.16591 0 0 1
-6.47295 -2.69076 12.2095 0 0 1
3.9196 31.0264 -99.5661 0 0 1
-21.5567 -24.1729 57.2697 0 0 1
5.22455 29.7331 -98.555 0 0 1
-4.7671 -4.3207 6.9346 0 0 1
8.74001 1.7722 39.9367 0 0 1
-25.0716 -37.16 65.4338 0 0 1
-3.62057 23.7888 -87.7208 0 0 1
-26.8225 -35.7401 74.9172 0 0 1
-10.1534 -13.4722 27.8071 0 0 1
-5.87484 21.1903 -87.3448 0 0 1
-15.8318 -18.7564 48.6915 0 0 1
-28.0481 -38.1891 73.2167 0 0 1
3.07486 29.6182 -98.5581 0 0 1
25.3018 17.0118 -19.0185 0 0 1
7.40701 4.84686 15.1844 0 0 1
59.8411 17.4792 1.89372 0 0 1
-12.0565 23.9734 -76.2908 0 0 1
4.845 30.6703 -109.925 0 0 1
-5.82643 -5.75539 11.8901 0 0 1
5.2857 29.2192 -95.621 0 0 1
4.94546 25.3628 -72.8813 0 0 1
-29.655 -41.4823 80.8447 0 0 1
-14.5715 -26.0948 46.6835 0 0 1
4.86483 28.1274 -84.8879 0 0 1
-3.86525 5.98646 -5.64216 0 0 1
9.0098 3.34237 44.0065 0 0 1
-4.15255 5.11935 -3.46274 0 0 1
-24.1236 -34.5129 64.2429 0 0 1
4.99391 24.6582 -77.9706 0 0 1
-14.6577 -28.9322 49.6814 0 0 1
3.43445 29.2788 -92.7385 0 0 1
5.37874 29.0334 -92.7519 0 0 1
-4.05493 27.607 -85.0161 0 0 1
5.08992 30.4385 -107.279 0 0 1
9.42596 16.0072 -43.1314 0 0 1
12.3114 15.4066 -37.3168 0 0 1
3.15413 23.7958 -75.1975 0 0 1
-2.7921 -11.2584 20.7886 0 0 1
-13.8679 -22.29 41.7771 0 0 1
4.92798 22.5017 -60.9076 0 0 1
-0.209601 28.8169 -89.8443 0 0 1
-32.68 -48.86 75.4724 0 0 1
-12.9087 -17.9092 37.0075 0 0 1
-12.1362 -26.1292 43.713 0 0 1
0.988319 4.61528 17.7403 0 0 1
1.81428 24.8181 -92.7705 0 0 1
3.26557 26.99 -89.6046 0 0 1
-7.6413 25.7988 -80.4702 0 0 1
5.27438 28.7932 -89.8409 0 0 1
-14.3032 22.5331 -80.8111 0 0 1
-0.418244 -9.09763 17.5527 0 0 1
-7.13543 24.9344 -82.3597 0 0 1
5.92087 6.43141 9.17383 0 0 1
10.5646 5.30359 55.9881 0 0 1
8.86404 5.51637 49.839 0 0 1
-10.1301 -4.5308 22.0692 0 0 1
19.2086 16.2136 -27.4113 0 0 1
-19.0919 -22.7921 53.9372 0 0 1
-33.4532 -44.1401 77.4014 0 0 1
-13.8436 -14.1258 38.242 0 0 1
1.25881 24.5471 -91.8045 0 0 1
-15.1698 -17.7151 46.69 0 0 1
-8.81468 -17.6993 32.1405 0 0 1
56.0351 10.0429 -0.902487 0 0 1
-1.92806 26.3782 -89.2805 0 0 1
-41.1911 -54.012 84.6669 0 0 1
-43.0195 -52.2161 88.0245 0 0 1
-32.008 -43.0536 78.9866 0 0 1
-25.3086 -34.6937 67.4642 0 0 1
-7.05464 -24.5218 38.5252 0 0 1
5.14201 28.395 -87.0532 0 0 1
-43.8784 -51.5924 90.4771 0 0 1
-19.0002 -25.9285 53.9336 0 0 1
-56.1843 -54.7194 103.956 0 0 1
-4.13561 2.25741 -0.682072 0 0 1
31.0952 15.566 -13.1206 0 0 1
24.5227 11.9753 -17.9694 0 0 1
3.24809 26.6545 -83.9682 0 0 1
-2.11014 23.7326 -89.0094 0 0 1
5.36874 27.0318 -86.8143 0 0 1
-23.8866 -31.5223 64.4382 0 0 1
3.09681 15.0352 -31.5203 0 0 1
-1.69859 6.27679 -14.0392 0 0 1
-36.9587 -47.3649 87.7468 0 0 1
-14.6928 -23.203 43.9718 0 0 1
-5.82457 -2.69921 9.05308 0 0 1
5.23452 27.2869 -89.5844 0 0 1
-11.1533 -19.2886 35.7729 0 0 1
-5.35363 -7.18512 12.9777 0 0 1
-31.9705 -43.1356 76.1443 0 0 1
-8.78349 24.1324 -81.26 0 0 1
1.45797 16.6362 -34.46 0 0 1
-0.608203 9.18685 -19.994 0 0 1
5.25102 26.5275 -81.1895 0 0 1
10.628 3.7362 55.7814 0 0 1
-25.3225 -30.0044 66.3415 0 0 1
-41.2373 -49.5287 93.1127 0 0 1
-18.1501 21.9523 -78.504 0 0 1
-14.5037 22.8898 -78.1512 0 0 1
-48.0467 -53.4548 97.9702 0 0 1
-23.6434 -42.8578 66.6121 0 0 1
4.93546 22.518 -51.9944 0 0 1
-16.8909 22.4788 -77.9105 0 0 1
2.99526 11.7944 -17.0685 0 0 1
1.09357 14.8745 -37.4297 0 0 1
4.66651 16.5496 -38.0584 0 0 1
6.01574 5.72175 17.9053 0 0 1
2.58709 18.1352 -43.2673 0 0 1
3.35485 26.1862 -78.2578 0 0 1
-14.5007 23.1296 -75.8059 0 0 1
3.45934 21.9628 -69.1674 0 0 1
-41.6455 -51.2309 86.9434 0 0 1
-16.948 22.5525 -75.8126 0 0 1
1.48228 16.6817 -46.2266 0 0 1
1.3885 10.7382 -14.8649 0 0 1
8.39807 3.51336 38.2616 0 0 1
-24.206 -29.5656 63.6379 0 0 1
-33.6175 -44.4981 78.9968 0 0 1
-18.257 -22.9295 52.5718 0 0 1
0.725693 8.68321 -8.36195 0 0 1
5.1731 25.6989 -75.4103 0 0 1
-66.9565 -56.9092 107.863 0 0 1
3.03466 13.0333 -22.8548 0 0 1
-6.10674 -20.8179 34.6472 0 0 1
36.7513 13.0259 -7.05813 0 0 1
-35.075 -45.8372 81.928 0 0 1
66.8784 13.0144 -1.34292 0 0 1
-19.5909 -39.3407 62.7818 0 0 1
3.14621 20.2464 -52.0291 0 0 1
5.17113 24.0292 -72.2657 0 0 1
-1.03785 -7.0305 13.2177 0 0 1
3.26386 23.7142 -69.534 0 0 1
6.18841 20.84 -49.172 0 0 1
-25.1033 -31.4769 67.3691 0 0 1
-20.8354 -35.2867 60.6182 0 0 1
3.41592 5.20648 26.5305 0 0 1
-42.3668 -50.4385 90.8139 0 0 1
-7.98782 -2.94472 17.7511 0 0 1
-10.507 -10.8767 27.2253 0 0 1
-56.7683 -55.8688 100.702 0 0 1
-28.0777 -38.6251 77.8748 0 0 1
5.2988 29.9372 -101.43 0 0 1
-5.62695 -13.2466 24.1996 0 0 1
-11.0222 -16.8771 32.6299 0 0 1
-10.8711 -25.5227 41.7929 0 0 1
-33.9497 -49.2752 76.9118 0 0 1
7.53735 4.89713 38.5764 0 0 1
-5.74356 -14.6821 26.5944 0 0 1
-25.6385 -32.4062 69.8621 0 0 1
-2.89286 -7.18909 12.9012 0 0 1
-10.6453 -5.93926 23.8106 0 0 1
-47.5329 -53.6803 98.7822 0 0 1
27.5206 13.7383 -15.3212 0 0 1
-18.3839 -25.849 52.4471 0 0 1
3.36631 19.8498 -49.1464 0 0 1
-17.4624 -34.7019 58.5416 0 0 1
3.36351 7.96371 3.23434 0 0 1
-6.1642 -22.0697 35.9754 0 0 1
-7.69682 -21.7945 36.4998 0 0 1
-6.33719 -0.0813316 11.9446 0 0 1
-4.63125 -2.12242 3.67006 0 0 1
-5.41997 23.5165 -86.2682 0 0 1
-56.9162 -56.9725 100.673 0 0 1
-22.848 -40.166 64.9886 0 0 1
-13.3775 -19.6989 38.8011 0 0 1
-3.89867 -18.4272 31.1651 0 0 1
1.34925 15.7074 -43.078 0 0 1
39.574 19.5229 -4.1571 0 0 1
-29.8703 -46.1831 72.3648 0 0 1
0.815557 29.0454 -92.5715 0 0 1
2.58549 17.6918 -40.3675 0 0 1
-14.5168 -33.6692 55.984 0 0 1
-5.67239 -16.7959 29.6113 0 0 1
-17.2215 -26.0551 49.8067 0 0 1
-40.6302 -49.2992 90.6788 0 0 1
25.6261 12.5074 -16.7135 0 0 1
1.25142 10.9988 -17.2141 0 0 1
2.6361 17.0596 -37.4535 0 0 1
3.04254 13.5082 -24.1109 0 0 1
11.4139 3.68501 61.4945 0 0 1
4.87211 11.2324 -17.2673 0 0 1
-4.41541 6.88069 -4.85845 0 0 1
-36.6656 -51.5827 80.0504 0 0 1
1.76906 17.1665 -34.9448 0 0 1
-54.9333 -55.4216 99.6297 0 0 1
-12.1406 -17.3625 35.1935 0 0 1
-1.8433 11.3131 -17.2417 0 0 1
5.4448 8.81378 -5.41768 0 0 1
8.64083 3.4351 41.118 0 0 1
5.07987 7.11728 -19.7711 0 0 1
7.28817 4.66453 29.3926 0 0 1
-23.6295 -26.937 60.5826 0 0 1
-50.0234 -54.0392 96.2555 0 0 1
8.33548 3.49787 35.3857 0 0 1
-2.64056 -6.50068 11.5697 0 0 1
-10.0588 -28.1208 42.7792 0 0 1
-21.2477 -26.1074 57.8059 0 0 1
-17.8368 -37.4669 61.0053 0 0 1
-24.0161 -41.1427 66.1803 0 0 1
3.26604 19.3551 -44.3523 0 0 1
-49.1157 -54.9397 93.7144 0 0 1
1.33926 16.565 -32.1991 0 0 1
-14.1724 -20.1633 41.0786 0 0 1
12.9989 14.6808 -35.5112 0 0 1
-13.368 -10.6219 32.7865 0 0 1
8.25591 5.52357 47.0399 0 0 1
-30.6925 -41.5801 73.8106 0 0 1
-29.4635 -40.2927 73.1314 0 0 1
-52.4983 -56.8787 96.2512 0 0 1
0.557049 14.6606 -28.7658 0 0 1
8.67635 1.6343 29.473 0 0 1
-10.9168 -22.1791 39.0897 0 0 1
3.25285 13.8309 -25.8644 0 0 1
23.409 12.3901 -19.9422 0 0 1
-2.68797 21.3639 -88.8051 0 0 1
18.4225 12.8859 -26.4088 0 0 1
2.95377 12.4472 -19.9886 0 0 1
-9.07727 -3.54917 20.1549 0 0 1
-9.17634 -25.8416 40.6596 0 0 1
-6.08204 -18.1291 31.5305 0 0 1
-17.1639 -22.9557 49.8851 0 0 1
-8.59712 -8.38028 20.8019 0 0 1
-24.8732 -35.4713 65.3308 0 0 1
-18.0189 22.1051 -76.1764 0 0 1
19.6656 12.782 -24.9745 0 0 1
0.694751 8.98599 -11.198 0 0 1
13.3166 16.2332 -36.1568 0 0 1
8.77499 1.74336 38.1698 0 0 1
-2.78433 -13.3108 24.2928 0 0 1
-18.5406 -39.2332 62.4726 0 0 1
-12.4091 -11.7101 32.1831 0 0 1
10.0692 5.69915 54.9783 0 0 1
-1.46433 11.9383 -18.9925 0 0 1
30.379 13.7072 -12.4119 0 0 1
-16.7731 -27.9156 50.6874 0 0 1
-16.2706 22.2895 -80.0643 0 0 1
-1.64918 9.40207 -16.747 0 0 1
-0.095682 9.34868 -17.188 0 0 1
42.0404 16.2804 -3.86303 0 0 1
-8.63572 -14.0806 26.6699 0 0 1
7.43502 4.85489 29.5943 0 0 1
3.21714 23.4589 -72.2856 0 0 1
-2.43815 10.8447 -14.9732 0 0 1
19.3464 16.912 -27.7425 0 0 1
-13.0526 -15.8273 36.6605 0 0 1
-3.5665 -17.042 29.3578 0 0 1
-16.6378 -30.6653 53.6939 0 0 1
-28.5254 -43.1927 70.6164 0 0 1
-2.78368 -12.3645 22.8569 0 0 1
13.0637 3.49628 75.2621 0 0 1
0.782212 9.58918 -13.96 0 0 1
-38.3866 -48.1675 87.7467 0 0 1
-13.6065 -30.9344 50.3997 0 0 1
28.3642 13.0105 -13.3407 0 0 1
-15.4829 -29.8622 51.7595 0 0 1
-5.18274 -5.0941 9.2777 0 0 1
2.39439 10.3305 -10.7288 0 0 1
3.42428 10.7474 -11.6673 0 0 1
2.11086 16.2973 -48.0239 0 0 1
4.61272 10.7565 -11.6555 0 0 1
-2.97276 8.76379 -11.3966 0 0 1
11.8665 3.75802 64.4036 0 0 1
4.77771 22.1797 -68.3512 0 0 1
8.68769 1.71938 35.2239 0 0 1
-48.1736 -53.3212 94.4648 0 0 1
-2.3889 6.28114 -11.1006 0 0 1
-3.8457 21.6037 -88.1073 0 0 1
-19.039 -28.4093 53.7777 0 0 1
3.9592 22.3075 -58.7969 0 0 1
-59.8662 -55.9242 103.483 0 0 1
8.35805 16.2444 -45.3407 0 0 1
-3.66053 8.1996 -8.64728 0 0 1
-1.72752 4.4383 -13.2768 0 0 1
-3.1241 6.14231 -8.40141 0 0 1
-11.0609 20.0484 -85.8567 0 0 1
11.1299 5.25205 58.7004 0 0 1
-14.2355 -12.411 37.5227 0 0 1
-4.88155 0.291315 3.30674 0 0 1
-68.92 -57.2288 108.886 0 0 1
-2.2021 28.3904 -86.6431 0 0 1
-31.131 -46.2688 73.8093 0 0 1
0.80045 8.35539 -5.48696 0 0 1
-31.9031 -44.3955 83.8754 0 0 1
-4.21037 -0.517804 2.09809 0 0 1
-64.9804 -57.0581 106.878 0 0 1
-3.21885 3.31619 -5.44784 0 0 1
-24.5433 -33.3719 66.1623 0 0 1
-46.4935 -52.6538 96.402 0 0 1
-66.479 -56.0323 107.452 0 0 1
2.97615 8.30616 0.465608 0 0 1
-5.13728 5.07779 -0.032854 0 0 1
-4.4705 3.96739 -1.75702 0 0 1
-5.16047 -15.7111 27.9075 0 0 1
4.98322 7.91247 3.27738 0 0 1
2.86009 32.8573 -121.805 0 0 1
-48.5177 -53.2942 96.4101 0 0 1
-5.4644 3.09258 3.18735 0 0 1
-4.48539 1.06537 1.15945 0 0 1
11.0076 3.65495 58.6893 0 0 1
-21.5293 -41.9462 65.3739 0 0 1
-5.07428 -2.53835 6.246 0 0 1
1.81058 4.61835 24.5033 0 0 1
-4.45904 20.4454 -88.4328 0 0 1
-5.93402 2.55464 6.01502 0 0 1
-35.1518 -46.6426 87.4197 0 0 1
-15.1415 -32.5823 54.9848 0 0 1
-6.89758 -5.57743 14.4276 0 0 1
-8.00484 -10.8633 20.978 0 0 1
-8.94193 -15.2665 28.7053 0 0 1
-38.1928 -51.839 81.6558 0 0 1
68.8648 18.1081 -0.827543 0 0 1
-17.9754 -20.786 52.1855 0 0 1
6.7423 5.70137 43.871 0 0 1
-5.7718 -12.3702 22.7851 0 0 1
-18.9539 -21.2961 53.5192 0 0 1
-13.379 -33.3345 53.8043 0 0 1
-10.3311 -27.6632 42.4027 0 0 1
1.55806 7.5782 1.55722 0 0 1
7.52166 4.86028 35.2756 0 0 1
-0.36372 -7.68142 15.1033 0 0 1
5.17406 30.1306 -104.482 0 0 1
-7.68364 -8.36938 18.018 0 0 1
12.5524 3.86801 70.2384 0 0 1
3.18801 4.6842 31.9494 0 0 1
-27.2734 -36.8927 75.6102 0 0 1
-35.2874 -49.0483 78.7932 0 0 1
-10.4214 -7.60587 24.7124 0 0 1
-52.6276 -54.8136 101.587 0 0 1
-30.01 -47.9238 72.4665 0 0 1
-30.9867 -43.2831 73.911 0 0 1
7.73908 5.04495 41.3304 0 0 1
3.31446 25.0662 -82.7822 0 0 1
4.52571 13.5162 -24.3143 0 0 1
8.00163 5.23772 44.1213 0 0 1
-39.7311 -49.7926 85.2951 0 0 1
-36.1588 -47.767 80.6625 0 0 1
-6.91808 -2.52846 14.6405 0 0 1
-36.9474 -47.1957 84.8226 0 0 1
-42.3841 -50.3897 93.423 0 0 1
3.72877 8.21556 -14.8415 0 0 1
-15.4936 -27.0676 48.8069 0 0 1
-16.847 -36.2952 59.8602 0 0 1
-59.9135 -56.9095 103.477 0 0 1
-10.4925 -15.9801 30.5411 0 0 1
-21.3213 -38.6447 63.1934 0 0 1
-12.8594 -12.4955 34.1759 0 0 1
-5.3818 26.4427 -83.8357 0 0 1
-4.02122 -19.1459 31.8072 0 0 1
-12.0151 -30.6472 47.4109 0 0 1
-16.3943 -25.2702 47.606 0 0 1
4.13353 28.1515 -84.8663 0 0 1
4.82921 7.7395 5.72141 0 0 1
8.71321 1.65995 32.2637 0 0 1
-36.2191 -47.0808 89.3074 0 0 1
58.0935 10.8351 -0.982376 0 0 1
-7.9324 -24.8502 39.2691 0 0 1
-34.2202 -50.8174 77.0591 0 0 1
-4.53813 25.6175 -85.8494 0 0 1
3.76288 30.7548 -112.56 0 0 1
-12.9315 -27.182 45.7369 0 0 1
4.34071 5.09286 37.4881 0 0 1
62.1396 11.2864 -0.926283 0 0 1
11.6577 5.09995 61.4072 0 0 1
4.42182 22.5142 -53.1491 0 0 1
4.53516 13.7273 -26.2089 0 0 1
1.50336 16.5298 -40.0769 0 0 1
-48.1435 -56.5651 91.9306 0 0 1
4.78825 24.9607 -80.277 0 0 1
-16.6049 -33.367 56.8908 0 0 1
4.64051 31.0207 -99.5608 0 0 1
-45.635 -52.7807 91.2607 0 0 1
-22.2015 -42.1547 65.7404 0 0 1
5.57592 22.3175 -49.9764 0 0 1
-27.6529 -38.4641 68.6097 0 0 1
-16.6183 -20.0701 49.7438 0 0 1
-15.9458 -18.4595 49.1174 0 0 1
-30.1952 -42.2423 81.4608 0 0 1
-33.5951 -44.5829 81.3332 0 0 1
-36.7428 -47.1721 82.4529 0 0 1
-38.7161 -48.0074 90.224 0 0 1
-37.4687 -47.4172 90.0177 0 0 1
-21.9006 -31.9103 59.7504 0 0 1
-6.10162 2.08832 8.0754 0 0 1
40.2952 19.4233 -3.31528 0 0 1
10.3597 4.01354 53.759 0 0 1
-5.5334 -15.5805 28.1616 0 0 1
30.896 16.7963 -12.9118 0 0 1
39.1159 9.76583 -3.76049 0 0 1
-12.6952 -24.1498 42.9043 0 0 1
22.1687 12.5775 -21.779 0 0 1
-16.0911 -20.5599 47.6605 0 0 1
-15.7736 -36.1804 59.5103 0 0 1
2.28973 4.61344 26.5527 0 0 1
7.42864 1.6852 13.2591 0 0 1
3.86146 6.62402 -11.2224 0 0 1
2.70842 4.60497 29.1287 0 0 1
-53.9902 -56.9428 97.6746 0 0 1
10.1494 2.8422 55.3747 0 0 1
35.9598 10.3718 -5.25307 0 0 1
0.660619 4.6316 15.097 0 0 1
-42.3819 -54.3363 85.9698 0 0 1
7.27107 4.68227 27.0279 0 0 1
7.31959 4.69233 14.9751 0 0 1
7.45001 4.85308 26.2855 0 0 1
-7.3516 -7.62577 15.9579 0 0 1
-1.28458 -12.9236 23.9391 0 0 1
66.2359 12.5004 -0.937933 0 0 1
-0.0147384 7.48732 -21.7586 0 0 1
4.56621 22.3119 -58.7434 0 0 1
7.33671 4.69238 17.3828 0 0 1
-48.0718 -55.9399 91.9202 0 0 1
3.98689 33.8529 -114.242 0 0 1
-42.4636 -50.5508 95.1007 0 0 1
-42.2081 -50.5208 88.8674 0 0 1
0.28083 4.64809 12.8461 0 0 1
39.6117 10.4493 -4.07366 0 0 1
1.47403 4.7702 22.55 0 0 1
1.27946 27.9159 -94.5811 0 0 1
-10.046 -9.5068 25.3177 0 0 1
16.1684 17.5034 -33.242 0 0 1
53.5748 17.8952 1.91992 0 0 1
13.3111 3.75681 74.3524 0 0 1
-4.14679 7.7344 -6.43708 0 0 1
4.58191 25.1877 -70.6034 0 0 1
-1.08306 21.8918 -89.5443 0 0 1
7.41176 4.90036 12.1837 0 0 1
7.35133 4.6967 31.9095 0 0 1
10.1139 15.4857 -41.431 0 0 1
4.54306 33.8672 -113.982 0 0 1
56.5091 10.8624 -1.02428 0 0 1
33.358 13.5142 -9.72628 0 0 1
-12.9976 -21.3028 39.8687 0 0 1
5.95361 1.78186 7.10038 0 0 1
-44.9087 -53.5984 89.4069 0 0 1
75.1818 16.8202 -3.95328 0 0 1
10.2864 4.7622 53.9527 0 0 1
-50.9435 -56.1851 94.9469 0 0 1
-13.1023 22.2202 -82.619 0 0 1
7.4489 4.97953 21.4417 0 0 1
-15.7694 -18.356 48.7188 0 0 1
0.0172077 -9.7778 19.4347 0 0 1
-47.5689 -56.4717 91.3105 0 0 1
4.67831 19.0192 -56.583 0 0 1
4.54471 22.7732 -53.5584 0 0 1
-1.36289 10.5162 -18.5973 0 0 1
24.8357 13.4942 -18.4203 0 0 1
-29.023 -47.6658 71.5107 0 0 1
-26.0269 -33.0888 71.7657 0 0 1
47.8049 16.3302 -0.999283 0 0 1
